ply
format ascii 1.0
element vertex 200
property float x
property float y
property float z
property float nx
property float ny
property float nz
property uchar red
property uchar green
property uchar blue
end_header
0.119350 -0.364945 2.622679 -0.379403 -0.810209 -0.446783 0 255 255
0.114341 -0.357511 2.616038 -0.638944 -0.609049 -0.469905 0 255 255
0.109597 -0.352738 2.612804 -0.600780 -0.550968 -0.579222 0 255 255
0.105325 -0.351054 2.616750 -0.394612 -0.828143 -0.398072 0 255 255
0.111535 -0.349977 2.608548 -0.490386 -0.567933 -0.661039 0 255 255
0.104955 -0.348157 2.611091 -0.392387 -0.788631 -0.473386 0 255 255
0.111388 -0.347546 2.606745 -0.406890 -0.607105 -0.682543 0 255 255
0.102661 -0.345919 2.610664 -0.535124 -0.697015 -0.477297 0 255 255
0.084040 -0.329539 2.600844 -0.468569 -0.669003 -0.576956 0 255 255
0.056959 -0.311982 2.598452 -0.440110 -0.779380 -0.445948 0 255 255
0.069916 -0.310926 2.590281 -0.356901 -0.392749 -0.847567 0 255 255
0.045851 -0.307934 2.600460 -0.397187 -0.797952 -0.453337 0 255 255
0.037034 -0.306200 2.603830 -0.430826 -0.759683 -0.487105 0 255 255
0.038993 -0.303270 2.597155 -0.411284 -0.719034 -0.560211 0 255 255
0.021243 -0.297347 2.601578 -0.468647 -0.838195 -0.278924 0 255 255
0.018863 -0.294729 2.597158 -0.407475 -0.850883 -0.331606 0 255 255
-0.008144 -0.285003 2.583801 -0.407911 -0.738575 -0.536764 0 255 255
-0.019283 -0.280582 2.581798 -0.503706 -0.691201 -0.518191 0 255 255
-0.030497 -0.271588 2.577668 -0.464109 -0.722871 -0.511918 0 255 255
-0.028379 -0.268900 2.572527 -0.366561 -0.662745 -0.652995 0 255 255
-0.030665 -0.264415 2.570918 -0.443573 -0.605056 -0.661173 0 255 255
-0.035137 -0.260071 2.570508 -0.565322 -0.608009 -0.557437 0 255 255
-0.041799 -0.255867 2.571323 -0.598797 -0.634757 -0.488391 0 255 255
-0.044083 -0.251194 2.567358 -0.336976 -0.751766 -0.566829 0 255 255
-0.048548 -0.246793 2.566144 -0.637587 -0.557870 -0.531286 0 255 255
-0.052972 -0.244869 2.568529 -0.672359 -0.544574 -0.501371 0 255 255
-0.048590 -0.244321 2.562588 -0.525825 -0.602903 -0.600014 0 255 255
-0.055206 -0.242810 2.569685 -0.668496 -0.592389 -0.449653 0 255 255
-0.046448 -0.241704 2.557554 -0.561763 -0.586754 -0.583216 0 255 255
-0.055237 -0.240227 2.564693 -0.507806 -0.746958 -0.429170 0 255 255
-0.053081 -0.237536 2.558638 -0.380949 -0.709620 -0.592721 0 255 255
-0.057501 -0.235762 2.562961 -0.666013 -0.656071 -0.354961 0 255 255
-0.064173 -0.226369 2.552637 -0.557680 -0.712342 -0.426102 0 255 255
-0.055439 -0.225747 2.546059 -0.335253 -0.648021 -0.683867 0 255 255
-0.064198 -0.223990 2.549827 -0.629603 -0.634016 -0.449026 0 255 255
-0.073027 -0.215121 2.545246 -0.482548 -0.653680 -0.582967 0 255 255
-0.081884 -0.211405 2.552284 -0.686158 -0.619357 -0.381555 0 255 255
-0.077439 -0.210760 2.543867 -0.520125 -0.722526 -0.455440 0 255 255
-0.084057 -0.206642 2.545547 -0.545779 -0.751123 -0.371403 0 255 255
-0.088509 -0.202491 2.547312 -0.658446 -0.673830 -0.335262 0 255 255
-0.090688 -0.200205 2.544966 -0.473170 -0.808972 -0.348820 0 255 255
-0.088462 -0.199936 2.541323 -0.626124 -0.668010 -0.402159 0 255 255
-0.095109 -0.195919 2.544647 -0.434709 -0.801811 -0.410033 0 255 255
-0.081911 -0.194901 2.531647 -0.448978 -0.464608 -0.763255 0 255 255
0.150971 -0.197094 2.660007 -0.341466 -0.812825 -0.471929 0 255 255
-0.075423 -0.189999 2.523619 -0.436737 -0.514993 -0.737593 0 255 255
0.314718 -0.190989 2.638559 -0.497390 0.130004 -0.857731 0 255 255
-0.101638 -0.186903 2.537074 -0.549282 -0.550281 -0.628872 0 255 255
-0.081968 -0.185796 2.523535 -0.451029 -0.535995 -0.713640 0 255 255
-0.099423 -0.184436 2.532415 -0.652475 -0.525845 -0.545677 0 255 255
-0.084175 -0.183732 2.524420 -0.337990 -0.538830 -0.771638 0 255 255
-0.101648 -0.182381 2.533594 -0.414884 -0.682297 -0.601949 0 255 255
-0.108253 -0.180515 2.536918 -0.599446 -0.492427 -0.631015 0 255 255
-0.106000 -0.180249 2.532858 -0.677283 -0.404038 -0.614851 0 255 255
-0.106029 -0.178067 2.532403 -0.735010 -0.311078 -0.602486 0 255 255
-0.110466 -0.176150 2.535508 -0.430377 -0.530185 -0.730534 0 255 255
-0.106014 -0.175769 2.529855 -0.679221 -0.363561 -0.637560 0 255 255
-0.099420 -0.175343 2.523986 -0.520191 -0.411603 -0.748321 0 255 255
-0.117130 -0.174365 2.540493 -0.806455 -0.336858 -0.485961 0 255 255
-0.108281 -0.173814 2.532885 -0.363964 -0.516605 -0.775016 0 255 255
-0.106042 -0.173585 2.529310 -0.681201 -0.276034 -0.678064 0 255 255
-0.103854 -0.171226 2.526117 -0.654191 -0.361905 -0.664123 0 255 255
-0.110470 -0.169412 2.530589 -0.376764 -0.455671 -0.806482 0 255 255
-0.106069 -0.169152 2.526942 -0.593664 -0.466192 -0.655918 0 255 255
-0.106063 -0.166889 2.524815 -0.538805 -0.497435 -0.679888 0 255 255
-0.125995 -0.165898 2.541484 -0.439436 -0.106699 -0.891915 0 255 255
-0.114865 -0.165155 2.530303 -0.675727 -0.431228 -0.597859 0 255 255
-0.114867 -0.162923 2.528785 -0.744247 -0.258645 -0.615792 0 255 255
-0.403508 -0.164487 2.512231 -0.482338 -0.107984 -0.869304 0 255 255
-0.119334 -0.161039 2.532858 -0.597997 -0.412380 -0.687271 0 255 255
-0.117111 -0.160891 2.530550 -0.601322 -0.482014 -0.637239 0 255 255
-0.114903 -0.160763 2.528670 -0.695353 -0.285000 -0.659742 0 255 255
-0.134967 -0.159800 2.546777 -0.387931 -0.458058 -0.799807 0 255 255
-0.132726 -0.159662 2.544653 -0.649572 -0.458694 -0.606347 0 255 255
-0.099586 -0.157771 2.516333 -0.493448 -0.257725 -0.830715 0 255 255
-0.143786 -0.157876 2.549003 -0.385135 -0.698926 -0.602639 0 255 255
-0.128225 -0.157114 2.538145 -0.748385 -0.420542 -0.512898 0 255 255
-0.119352 -0.156613 2.530545 -0.523135 -0.301671 -0.797072 0 255 255
-0.117118 -0.156445 2.527754 -0.710836 -0.382619 -0.590182 0 255 255
-0.119337 -0.154362 2.528507 -0.526933 -0.463917 -0.712126 0 255 255
-0.117113 -0.154210 2.526010 -0.625781 -0.249297 -0.739087 0 255 255
-0.108334 -0.153765 2.519442 -0.545875 -0.215114 -0.809781 0 255 255
-0.130440 -0.152777 2.537107 -0.677385 -0.500084 -0.539505 0 255 255
-0.128198 -0.152626 2.534586 -0.641381 -0.344582 -0.685488 0 255 255
-0.121533 -0.152236 2.528385 -0.525318 -0.337768 -0.780995 0 255 255
-0.395612 -0.153117 2.499605 -0.361989 -0.342713 -0.866898 0 255 255
-0.132669 -0.150682 2.537817 -0.494347 -0.488383 -0.719099 0 255 255
-0.130410 -0.150513 2.534859 -0.593963 -0.373446 -0.712563 0 255 255
-0.123815 -0.148031 2.529932 -0.573871 -0.342913 -0.743696 0 255 255
-0.104069 -0.147094 2.515785 -0.399275 -0.308994 -0.863193 0 255 255
-0.134871 -0.146332 2.536437 -0.353977 -0.477074 -0.804426 0 255 255
-0.112825 -0.145300 2.520667 -0.566791 -0.198741 -0.799531 0 255 255
0.193135 -0.146283 2.655202 -0.428577 0.586961 -0.686876 0 255 255
-0.117201 -0.143269 2.521817 -0.445695 -0.329395 -0.832379 0 255 255
-0.112829 -0.143091 2.519251 -0.525815 -0.101992 -0.844462 0 255 255
-0.392849 -0.144319 2.493554 -0.647339 -0.280605 -0.708670 0 255 255
-0.119413 -0.141184 2.522513 -0.542711 -0.182113 -0.819938 0 255 255
-0.095481 -0.140278 2.509885 -0.419851 0.027162 -0.907186 0 255 255
-0.130453 -0.139507 2.529799 -0.405729 -0.353970 -0.842668 0 255 255
-0.121648 -0.139129 2.523970 -0.630599 -0.143932 -0.762646 0 255 255
-0.112894 -0.138775 2.518708 -0.587296 -0.216905 -0.779766 0 255 255
-0.110710 -0.138684 2.517339 -0.526091 0.001113 -0.850427 0 255 255
-0.390244 -0.137736 2.488943 -0.658154 -0.244944 -0.711924 0 255 255
-0.119505 -0.134696 2.521535 -0.455238 -0.260013 -0.851558 0 255 255
-0.390223 -0.135599 2.488451 -0.750572 -0.176548 -0.636767 0 255 255
-0.106449 -0.132045 2.513876 -0.474204 -0.142279 -0.868842 0 255 255
-0.115171 -0.130173 2.517415 -0.436416 -0.189409 -0.879583 0 255 255
-0.102145 -0.129749 2.511634 -0.525692 -0.171191 -0.833272 0 255 255
-0.387566 -0.126901 2.483063 -0.731864 -0.239707 -0.637900 0 255 255
-0.119604 -0.123822 2.517903 -0.467498 -0.372596 -0.801635 0 255 255
-0.091500 -0.120874 2.507641 -0.361993 -0.315753 -0.877075 0 255 255
-0.385165 -0.122543 2.480217 -0.665087 -0.021944 -0.746444 0 255 255
-0.385184 -0.118305 2.479681 -0.804491 -0.109111 -0.583857 0 255 255
0.276047 -0.108409 2.647234 -0.384643 -0.561341 -0.732766 0 255 255
0.367757 -0.106175 2.621993 -0.413994 -0.432064 -0.801205 0 255 255
-0.382567 -0.109675 2.474489 -0.746593 -0.006533 -0.665249 0 255 255
0.337245 -0.102404 2.629956 -0.436919 -0.200898 -0.876779 0 255 255
0.336900 -0.095611 2.628219 -0.497465 -0.293425 -0.816352 0 255 255
-0.380063 -0.101100 2.470102 -0.677133 -0.142685 -0.721895 0 255 255
0.334852 -0.093436 2.629909 -0.542004 -0.293915 -0.787303 0 255 255
0.336805 -0.093351 2.627775 -0.439899 -0.055493 -0.896331 0 255 255
-0.380041 -0.098985 2.469599 -0.696543 -0.101844 -0.710250 0 255 255
-0.380051 -0.090547 2.468319 -0.796138 -0.134798 -0.589911 0 255 255
0.345596 -0.081942 2.627023 -0.418910 0.293965 -0.859127 0 255 255
-0.377581 -0.075714 2.463123 -0.647950 -0.096326 -0.755568 0 255 255
0.333631 -0.066573 2.639662 -0.523938 0.448990 -0.723808 0 255 255
-0.377637 -0.071514 2.462871 -0.555060 -0.101845 -0.825552 0 255 255
0.296353 -0.062810 2.650619 -0.451426 0.750297 -0.482980 0 255 255
-0.377623 -0.069410 2.462427 -0.661057 -0.198756 -0.723532 0 255 255
-0.377678 -0.065212 2.462172 -0.692400 0.004296 -0.721501 0 255 255
-0.377689 -0.058911 2.461241 -0.589969 -0.128288 -0.797169 0 255 255
-0.377656 -0.056808 2.460653 -0.562603 -0.063740 -0.824266 0 255 255
-0.114486 -0.039907 2.510523 -0.407714 -0.287363 -0.866713 0 255 255
-0.121109 -0.033582 2.512818 -0.470346 -0.013033 -0.882386 0 255 255
-0.380530 -0.035877 2.463195 -0.668865 -0.019858 -0.743119 0 255 255
-0.380637 -0.031677 2.463336 -0.643137 0.015363 -0.765597 0 255 255
-0.132097 -0.027315 2.516718 -0.467757 0.156518 -0.869888 0 255 255
-0.127747 -0.027246 2.515237 -0.414263 0.115841 -0.902755 0 255 255
-0.380643 -0.029578 2.463046 -0.541988 0.062378 -0.838068 0 255 255
-0.383229 -0.025404 2.466051 -0.686761 -0.052528 -0.724983 0 255 255
-0.380828 -0.025376 2.463775 -0.542441 0.175675 -0.821521 0 255 255
-0.121397 -0.018552 2.513340 -0.515858 -0.061149 -0.854489 0 255 255
-0.385860 -0.017012 2.468692 -0.603684 0.115368 -0.788832 0 255 255
-0.136829 -0.010156 2.520020 -0.496162 0.029925 -0.867714 0 255 255
-0.386047 -0.012796 2.469423 -0.598565 0.183775 -0.779710 0 255 255
-0.386149 -0.010686 2.469851 -0.567610 0.200693 -0.798462 0 255 255
0.175891 0.005404 2.640239 -0.643791 0.601245 -0.473326 0 255 255
-0.388866 -0.004361 2.473410 -0.570273 0.075801 -0.817950 0 255 255
-0.137168 0.002809 2.523043 -0.466086 0.189269 -0.864257 0 255 255
-0.139420 0.004952 2.524607 -0.462487 0.239832 -0.853573 0 255 255
-0.393989 0.001976 2.479090 -0.766189 0.046105 -0.640959 0 255 255
-0.130721 0.007208 2.521440 -0.441825 0.150855 -0.884327 0 255 255
-0.122020 0.007315 2.518888 -0.422824 0.377358 -0.823906 0 255 255
-0.394074 0.004095 2.479386 -0.690643 0.180537 -0.700300 0 255 255
-0.135178 0.009341 2.524568 -0.413509 0.248427 -0.875953 0 255 255
-0.396827 0.006243 2.483730 -0.813225 -0.017289 -0.581693 0 255 255
-0.141952 0.013659 2.530660 -0.583834 0.359784 -0.727800 0 255 255
-0.399535 0.010507 2.487360 -0.831254 0.058969 -0.552757 0 255 255
-0.135474 0.015921 2.529990 -0.547135 0.498351 -0.672524 0 255 255
-0.402352 0.012679 2.492063 -0.822748 -0.228732 -0.520353 0 255 255
-0.399640 0.012637 2.487792 -0.755454 0.213651 -0.619389 0 255 255
-0.148879 0.018061 2.539966 -0.552651 0.646084 -0.526453 0 255 255
-0.146576 0.018027 2.536441 -0.408451 0.685752 -0.602422 0 255 255
-0.148982 0.020267 2.541623 -0.510090 0.682728 -0.523155 0 255 255
-0.140100 0.020305 2.536285 -0.410857 0.736513 -0.537350 0 255 255
-0.066186 0.021266 2.521531 -0.479544 0.423647 -0.768479 0 255 255
-0.407393 0.016957 2.497070 -0.450215 0.455758 -0.767848 0 255 255
-0.405077 0.016967 2.495718 -0.784746 -0.074395 -0.615337 0 255 255
-0.138120 0.022609 2.540731 -0.419287 0.817946 -0.393907 0 255 255
-0.111782 0.022832 2.530351 -0.464014 0.707747 -0.532715 0 255 255
-0.407639 0.019117 2.498497 -0.726287 0.206285 -0.655709 0 255 255
-0.404974 0.019074 2.494659 -0.543011 0.360472 -0.758419 0 255 255
-0.407809 0.021268 2.499384 -0.425539 0.637879 -0.641894 0 255 255
-0.114556 0.029781 2.550423 -0.542780 0.721584 -0.429774 0 255 255
-0.112273 0.029714 2.546200 -0.643281 0.630621 -0.434173 0 255 255
-0.103850 0.032369 2.558941 -0.560489 0.781664 -0.273595 0 255 255
-0.101539 0.032249 2.552751 -0.529754 0.761203 -0.374073 0 255 255
-0.086226 0.034602 2.549068 -0.527339 0.646132 -0.551749 0 255 255
-0.075333 0.036929 2.547446 -0.468534 0.603300 -0.645372 0 255 255
-0.060251 0.046326 2.560660 -0.630968 0.693659 -0.347443 0 255 255
-0.058043 0.046193 2.555139 -0.612801 0.592777 -0.522580 0 255 255
-0.053708 0.048718 2.563322 -0.478977 0.812478 -0.332356 0 255 255
-0.044962 0.051010 2.561609 -0.440596 0.769633 -0.462104 0 255 255
0.115947 0.068680 2.605599 -0.410625 0.720384 -0.558958 0 255 255
0.144918 0.078126 2.605419 -0.562401 0.610795 -0.557347 0 255 255
0.146981 0.078066 2.603056 -0.565253 0.581407 -0.585196 0 255 255
0.160094 0.080382 2.599485 -0.407629 0.489001 -0.771179 0 255 255
0.156308 0.085195 2.609060 -0.508011 0.742168 -0.437163 0 255 255
0.173309 0.085010 2.597872 -0.472679 0.245138 -0.846452 0 255 255
0.166988 0.087352 2.602924 -0.405181 0.431959 -0.805754 0 255 255
0.169139 0.087343 2.601864 -0.506314 0.185054 -0.842260 0 255 255
0.173469 0.089593 2.600528 -0.540730 0.551383 -0.635285 0 255 255
0.180199 0.091971 2.601085 -0.513973 0.582498 -0.629704 0 255 255
0.178239 0.094338 2.604665 -0.565338 0.511144 -0.647398 0 255 255
0.184631 0.094277 2.600936 -0.460952 0.503580 -0.730706 0 255 255
0.204029 0.094259 2.593180 -0.518907 0.272231 -0.810324 0 255 255
0.210521 0.094278 2.591110 -0.413584 0.275993 -0.867627 0 255 255
0.195507 0.096559 2.597888 -0.492509 0.521240 -0.696953 0 255 255
0.200089 0.098944 2.599366 -0.548349 0.430555 -0.716893 0 255 255
0.215199 0.103435 2.594496 -0.472991 0.386075 -0.791975 0 255 255
